# .PCD v0.7 - Point Cloud Data file format
VERSION 0.7
FIELDS x y z rgb
SIZE 4 4 4 4
TYPE F F F U
COUNT 1 1 1 1
WIDTH 1195
HEIGHT 1
VIEWPOINT 0 0 0 1 0 0 0
POINTS 1195
DATA ascii
0.49982747 -0.82113218 8.524416 6900054
1.347582 -0.77178323 7.9441218 8480888
-2.570771 -0.99244261 10.111528 2958633
-1.1392158 -0.98741341 10.219303 6240068
-0.75342596 -0.86892599 8.7600679 5716037
-2.463954 -0.99506766 10.008718 7030348
-2.0760961 -0.97221142 9.7539444 8737893
-1.4200405 -1.0194632 10.42415 6240840
-2.2721419 -0.99442643 9.8604965 5520708
-0.55018932 -0.87589842 8.6018333 6700103
1.3479677 -0.79382843 7.9424677 8546423
-3.0706115 -1.0870613 11.036139 6577013
-2.7841339 -1.0766147 10.858742 3813179
-0.46479756 -0.87647033 8.5275555 6240067
-3.0094473 -1.1003194 11.016402 3748160
-2.8658898 -1.0870905 10.927392 3879744
-2.7264051 -1.0684496 10.755644 3681593
-0.71779621 -0.91188371 8.7903376 7096923
-0.62781906 -0.89441627 8.6274405 4994108
0.33012313 -0.85717982 8.3284693 4796473
-0.39523953 -0.89134246 8.4620161 5978181
0.87079698 -0.84796321 8.3117762 4207439
1.476151 -0.80724865 7.8371606 8283764
-2.8969646 -1.1104486 10.967111 6575977
-2.362788 -1.0359263 9.946682 8211032
-0.49918023 -0.90947646 8.5851727 8803938
-3.0990899 -1.1325495 11.022358 7630216
0.52384681 -0.89211375 8.5047493 6048606
1.0046116 -0.86866349 8.2898483 5651780
1.104736 -0.86101514 8.1004028 7560040
-2.462898 -1.0806314 9.9677992 7950943
-1.7993673 -1.0359861 9.487608 6371656
-0.60099804 -0.95091885 8.6635675 8803941
-0.37801093 -0.93875569 8.5327177 9132651
1.1143923 -0.87741381 8.1468973 5390153
-3.1017895 -1.1771972 11.07864 7562622
-2.3543725 -1.0883193 9.922102 5255482
-2.1973114 -1.0776826 9.7957916 6503498
1.4719552 -0.86012912 7.8401318 5916244
-2.2315011 -1.0941367 9.9802322 6899024
-1.8535689 -1.0663832 9.5233002 6896714
0.11057444 -0.92630899 8.1458941 8803684
1.3172983 -0.89374048 8.0370607 8548998
-0.70371568 -0.98980337 8.7025738 4597809
-0.39675406 -0.96501315 8.5082779 6831179
1.0998775 -0.91467834 8.1031961 8482433
-2.5993724 -1.1355757 10.06284 4927029
-3.0758386 -1.2262299 10.986536 7957637
-1.9405657 -1.1039662 9.656661 7422548
-0.72867757 -1.0105755 8.7496042 5845565
-2.9858325 -1.2352173 10.982093 5129303
-0.95324647 -1.0348443 8.8618746 7687781
-0.38026673 -0.99630636 8.4922638 6765644
-1.5654572 -1.0805243 9.142168 6962767
-1.4259449 -1.0824181 9.2615576 6765644
-1.1591064 -1.0702552 9.048336 7423320
-0.54427809 -1.0237294 8.6007576 7425631
1.5753633 -0.92266119 7.7552843 6967904
-2.4702928 -1.1733696 9.9683084 5454141
1.1661512 -0.96158069 8.0290222 6967902
-3.0656531 -1.277586 10.995248 7103873
-0.75194484 -1.0585206 8.7930126 7357009
-0.35533446 -1.0381947 8.4798346 7159886
-1.1007217 -1.101467 9.0078506 6636878
1.129064 -0.99217677 8.1263399 5851225
-1.0258714 -1.1071085 8.9065332 7687257
-1.6729449 -1.1688056 9.2741909 5191232
-1.6002742 -1.1617116 9.104866 4928572
-0.21376067 -1.0786824 8.4100962 8408665
0.5509125 -1.0806193 8.5807276 8409442
1.3466905 -1.018556 7.9328947 8416124
-3.6141768 -1.4057888 11.36802 5129825
-3.4104998 -1.3870254 11.230239 5918057
-1.1164745 -1.143093 8.8879433 4075061
0.66992605 -1.0809336 8.4380074 8025225
1.3140061 -1.0268521 7.9730139 8284539
-1.7731984 -1.2251861 9.4394464 5847876
1.3143897 -1.0488179 7.971447 5521487
-3.6387606 -1.4464619 11.411329 7242149
-3.4290206 -1.4167442 11.218905 7103356
0.1401996 -1.0652355 7.9564514 10318213
1.4235123 -1.0458685 7.8957429 5193035
-0.34984612 -1.1171249 8.3566332 6043453
1.5236742 -1.047567 7.8237534 5128270
1.2250981 -1.0799845 8.0155306 8088704
1.2759761 -1.0887722 8.0158224 8614015
1.3039484 -1.0811418 7.9826612 8351359
1.6008111 -1.0539584 7.7092485 8547193
-3.4195235 -1.464237 11.229308 7562107
-3.3630216 -1.4576362 11.269725 6181733
-3.1798139 -1.451858 11.104339 7103094
0.98692673 -1.1262788 8.2094421 7165283
1.2987272 -1.0994928 7.988111 6638678
-0.34851494 -1.1637183 8.354701 3677470
0.86350697 -1.135956 8.2933636 5785692
0.88378364 -1.1400297 8.2383108 6704732
1.5193933 -1.0920563 7.8274398 6377054
0.17841242 -1.1537076 8.0092468 4334374
1.2720404 -1.1738234 8.0165548 8809852
0.18883234 -1.2124497 8.0840721 4005665
1.216104 -1.2008797 8.0203609 8482170
0.99762869 -1.2348419 8.2508955 8416123
1.5208979 -1.1841992 7.8204145 7430516
1.2785585 -1.2174666 8.0067387 5456724
1.3009408 -1.214515 7.9799109 7626605
-3.4000039 -1.6433264 11.256518 6446451
0.86828744 -1.2614795 8.2881603 5786468
-3.0300736 -1.618255 10.979658 4536647
-0.26349184 -1.2915016 8.348793 5518389
1.3014473 -1.2410675 7.9780145 5325395
1.51249 -1.2171618 7.7637334 4799048
-0.22761868 -1.3029693 8.370368 6503231
1.416382 -1.2366308 7.8955193 4995653
1.4999613 -1.2393165 7.9138041 5982805
1.5215821 -1.2280291 7.8170662 5260631
0.73896295 -1.3066674 8.3735952 8481922
-3.6596472 -1.6992488 11.354387 7900593
-3.4279733 -1.6821989 11.239233 5392480
0.13464126 -1.2840101 8.1179724 7160392
1.0532752 -1.2850623 8.1360865 8680586
1.593985 -1.2332782 7.7094607 6309201
1.5020331 -1.2533284 7.8435574 8680068
1.6797013 -1.2392014 7.7158403 5521226
1.706538 -1.234111 7.6721692 5719122
-0.2727218 -1.3397279 8.3922186 5257281
1.2406658 -1.2863892 7.9877443 6639458
1.7067486 -1.2514818 7.6707687 8020848
0.11392339 -1.3182832 8.0884132 5059131
-2.4394855 -1.5387205 9.7315836 4597809
-3.6506226 -1.7792642 11.368785 4672616
0.66406864 -1.3818982 8.4326601 5259093
-2.2378798 -1.5985293 9.9833879 5911874
1.2132162 -1.3434119 8.0170679 6113630
1.3090098 -1.3421801 7.964025 6113625
-3.6414502 -1.8276489 11.381004 7826556
-1.7542439 -1.3540134 7.8765969 6764611
-1.5651327 -1.3336254 7.7338004 5781058
1.2592703 -1.3807564 8.022296 8219774
-0.062956914 -1.4150827 8.1953468 6107452
1.0189545 -1.4103205 8.1661119 8546939
1.2085577 -1.3931186 8.0203075 7626610
-2.9814644 -1.7907829 10.853436 6773864
-1.2791275 -1.5849646 9.1549845 6042948
-1.5366894 -1.3511389 7.7263794 6372427
1.1383286 -1.4117814 8.098196 6048614
-0.056160476 -1.4373671 8.2315855 8145238
-1.7785451 -1.3869417 7.9064322 7093319
-1.181363 -1.3719051 7.7735429 8081767
-3.6532748 -1.8909875 11.315807 7431800
-0.19179198 -1.477273 8.3469658 3153185
0.67407835 -1.4949187 8.4205875 5195607
0.80384916 -1.4874363 8.3177681 4864842
-1.3204918 -1.3866411 7.6921883 9791097
1.1031144 -1.4614218 8.133996 7889783
1.2437961 -1.4412464 7.9768662 5982817
1.4353384 -1.4235107 7.8607273 6311010
-0.18889034 -1.4884423 8.3048267 5781052
-0.17380153 -1.4960294 8.2961483 5386296
1.255181 -1.4617519 8.0233717 7825023
-1.354887 -1.4055653 7.7021451 9595005
-0.098798543 -1.499922 8.2543173 6699334
0.78285259 -1.5139489 8.3276587 7498625
1.490064 -1.4453576 7.8503785 6902376
-1.3323506 -1.4082398 7.6686707 6438737
1.4307538 -1.4596385 7.865036 9139591
0.08349365 -1.4978908 8.1020899 8014424
0.7792896 -1.5341637 8.3310604 4601154
1.3851736 -1.4817158 7.9885006 8810111
1.6004392 -1.4444592 7.7264047 8481403
1.4854209 -1.4727602 7.8554144 8613502
-1.4562203 -1.5510318 8.3138609 6502726
1.6027403 -1.4684988 7.7525806 5324109
-1.3733634 -1.4416988 7.679955 6766674
-1.2711347 -1.4441228 7.7024059 9594749
-1.2089443 -1.4467915 7.7095261 8474467
-0.26609418 -1.5590283 8.3832102 5388870
1.6170163 -1.4700315 7.7307181 7560554
1.2044413 -1.532235 8.0789127 4471633
1.5356516 -1.4894354 7.7828326 4271677
-2.2482362 -1.8225963 10.076176 6306635
-1.550321 -1.4633278 7.7531824 6830147
-1.1665328 -1.4602789 7.6947947 9791613
-1.5173783 -1.4581087 7.6932149 7553358
-1.3463296 -1.4634465 7.6981068 7030106
0.049326837 -1.5537049 8.1639748 5649732
1.1693249 -1.5555398 8.1172581 6378612
-1.2913733 -1.4738311 7.7079859 9988477
1.2851497 -1.5462263 7.9835515 8481400
1.3184245 -1.5362992 7.9433951 7823984
1.3293425 -1.5344164 7.9298234 7758963
1.4862794 -1.5256978 7.8514247 4404291
-1.8149073 -1.5261328 7.9362907 6044235
-1.2075448 -1.4944994 7.707901 7684950
1.3298317 -1.5609472 7.927907 8482431
-1.3617775 -1.7802247 9.3887987 6173761
-1.3103917 -1.4989926 7.6862335 6372430
-1.1723309 -1.5045576 7.6955519 10053756
1.0819 -1.6041608 8.1506109 6444392
1.2970388 -1.5755535 7.9679246 5785177
-1.5605996 -1.5096565 7.7285843 7093066
-1.5162461 -1.5047495 7.691678 7028041
-2.3634114 -1.6299013 8.3804436 6831181
-1.1857193 -1.5233202 7.6997643 8145245
-1.9434921 -1.9062852 9.6543169 7226712
-1.2547622 -1.531438 7.6948223 8014941
-0.31716704 -1.6654418 8.4058571 8607080
-1.5317736 -1.5381508 7.7207999 7224395
-0.39508611 -1.6774063 8.363452 9661059
-2.393496 -1.6501234 8.3515234 6700108
-0.35191017 -1.6905781 8.3819132 4666950
-1.289004 -1.5615059 7.7049437 10054787
-2.09501 -1.635272 8.1265631 8277858
-1.3561455 -1.5643312 7.6716361 7424092
-1.8056501 -1.6104755 7.9332895 6765387
-1.5140032 -1.7164065 8.4378614 7028559
-1.1990175 -1.5838301 7.7302499 7226196
-0.88819546 -1.7426119 8.5564985 7358559
-0.37507406 -1.7037104 8.3141365 9924487
-1.9264075 -1.948513 9.7215033 7688034
-1.7703705 -1.7681205 8.5515728 6962767
-0.34374154 -1.7275659 8.2981215 4073776
-1.7545321 -1.630339 7.8713832 7619413
-1.3286173 -1.6012957 7.6891866 7555423
0.93624777 -1.7129383 8.0824738 6773610
-1.1276931 -1.6151961 7.7049546 7292766
-1.1608387 -1.6352155 7.7570896 6371917
-0.32324129 -1.7592142 8.326396 4862268
-1.6902989 -1.6388645 7.806706 7425123
-1.5411441 -1.6199707 7.6953449 6306634
1.1661704 -1.7181699 7.9361572 5590107
1.3090785 -1.6981491 7.8235507 6444389
-1.4511185 -1.7003111 7.7261643 9263725
-0.25163826 -1.8535931 8.2873936 3616309
0.022367509 -1.8427296 8.0888348 4404280
-1.4852874 -1.7204758 7.6264954 8147299
-2.2078631 -1.8207939 8.1311684 7620693
-1.5074816 -1.752807 7.5810027 8278370
-1.3886226 -1.8046459 7.7290401 8213861
-1.5000767 -1.7740269 7.578413 5582904
-1.4076575 -1.780431 7.6028461 5978952
-1.3919188 -1.7889258 7.5720553 9199215
-1.4858274 -1.7951943 7.573873 8278111
-1.0026808 -1.8573434 7.6223516 6834002
-2.4315445 -1.9979163 8.3613033 6645372
-1.4234104 -1.9001945 7.5784512 7096148
-1.7891052 -1.9502374 7.8197255 4865099
-2.2739911 -1.9757427 7.9011288 13753085
-2.081043 -1.9864655 7.8356299 12434667
-2.6590989 -0.11408965 10.771606 4733257
-0.69630313 -1.302564 7.522254 6700879
-0.9242155 -1.2877656 7.5670857 7291215
0.52691728 0.36937341 8.5669155 8613508
-1.4752402 -1.0545053 8.8905563 8738924
-1.6179435 -1.1698439 9.2329035 4731707
-1.5496929 -1.5560192 9.4677391 6305348
-1.3518941 -1.641089 8.9954453 7355982
-1.3505946 -1.6995212 8.9941921 7356239
0.93294877 1.8783256 8.2938156 6179424
0.049559489 1.8849728 8.9178667 9272209
-0.11598156 1.7579662 9.0294933 9137017
0.92648232 1.5569727 8.2792482 5061455
-0.42506826 1.6166282 8.8197575 7692148
0.93746954 1.4598202 8.2800035 5914959
0.98060471 1.371665 8.2483892 7497087
0.90065628 1.2456694 8.2847805 7955577
-1.4588923 1.4198457 9.5357256 3415589
-1.5337632 1.4678493 9.7868214 4663084
-1.5920157 1.4038484 9.6136808 3415332
-1.8082211 1.3630221 9.9075136 5056813
0.65605623 1.0843587 8.4803181 5652043
-0.58399415 1.0624865 8.9806356 7553616
0.6022796 0.80100119 8.5244589 6179421
0.57268208 0.79744512 8.5480003 7366779
-0.44096133 0.80653429 8.8387079 4598068
-2.3463457 0.68047458 10.014503 8284027
0.96018261 0.46113631 8.2285299 7492450
0.78862464 0.43470398 8.375411 4273474
0.13884196 0.32434514 8.422718 8611192
-1.6797376 0.3633368 9.8141298 3677216
-0.40273455 0.15649633 8.9614267 3612967
-2.3406458 0.19145294 10.151688 5783890
-1.818488 0.17382462 10.008079 6436156
-2.0157068 0.16400093 10.052402 5910070
-2.6285906 0.12010101 9.8943624 5653076
0.76826322 -0.032014064 8.3644638 8482687
-2.7595487 -0.019690823 10.263794 7954802
-1.5236652 -0.040667746 9.5823622 5450808
-0.4230569 -0.22614229 8.9745731 8539739
1.0854955 -0.25375536 8.1421356 7823216
1.6353495 -0.26376653 8.5254736 6049377
-3.0874021 -0.27041453 11.237525 7561334
-1.8798651 -0.28114527 9.986969 8670554
-2.7772465 -0.34421474 10.84371 7890295
-2.8861606 -0.36610609 10.894518 7431547
0.068887509 -0.41244942 8.4817877 6830662
-1.7432541 -0.40158308 9.6608505 3414303
0.73064977 -0.46571764 8.3887615 7694976
-2.0582182 -0.50506973 10.176597 7420998
0.48385769 -0.48557976 8.5728807 7364724
0.39185008 -0.51897031 8.5226316 5652049
-0.98073596 -0.58997828 9.1717396 7224387
0.65545762 -0.58039117 8.5316553 8284799
0.83268487 -0.70402265 8.2981491 3164842
0.43546674 -0.75798917 8.3971109 7557729
-1.9217796 -0.93280315 9.6412239 6306378
-0.93917799 -0.95851541 9.9486752 6174531
1.085907 -0.88693714 8.1834211 7561591
0.61635882 -0.9422242 8.4509315 5914191
-1.5015504 -1.0218394 9.2937632 6305605
0.94594049 -1.1488849 8.1981173 7033440
0.74082786 -1.2674556 8.4015198 7169661
-0.96343428 -1.4020081 8.1202574 6766417
0.93420154 -1.4544836 8.2058783 8087676
0.90077657 -1.4889852 8.2372742 4402749
0.77685452 -1.5551476 8.3511314 5854060
0.65878075 1.9351631 8.4593239 6180713
0.66011715 1.9002231 8.4579687 8154503
0.77504873 1.8463024 8.3596153 6113888
-0.46325782 1.6560889 8.9147062 7032415
0.66922349 1.6505406 8.4482708 7295848
-0.22807382 1.6585718 8.9325495 7229021
0.8840006 1.6299157 8.2901583 8678783
-1.4966091 1.543854 9.447876 5318958
-1.3938763 1.5498849 9.406951 4268072
0.87066352 1.5481814 8.3067017 4141123
-1.5380856 1.5295216 9.4740229 4989993
-0.80141872 1.4472392 8.862999 6765637
-0.19114001 1.5079439 8.8380089 7164259
-1.5963694 1.4827393 9.5027323 3742240
0.42223775 1.5017782 8.6614981 6048866
-1.1408372 1.3939734 9.1315241 5453120
0.089570448 1.4387308 8.8786373 7953516
0.76855516 1.3778768 8.3678818 6178652
0.10663668 1.3887422 8.9361582 7099751
-0.58621734 1.3112363 8.999445 6305345
-1.2788212 1.2945458 9.7408161 5912132
-0.8118791 1.1830428 9.0226421 4071461
0.037339784 1.2530597 8.9132805 6375254
0.85681021 1.1931307 8.2951908 8088710
-0.13626485 1.2405989 9.0300045 7821160
-2.0952952 1.1508751 9.9450655 8085359
1.2647723 1.0938635 8.0230541 7759486
-1.6756347 1.1704199 10.133299 3874340
-0.92279112 1.0095229 9.0299692 9000292
-1.0369465 1.0143923 9.1305122 3874855
-0.074707463 1.0059365 8.7810736 9335685
-0.43732664 0.93571413 8.9595652 6241869
-0.94037819 0.88855278 9.0757236 5581620
1.1784227 0.91607541 8.0539579 8481154
0.24449202 0.82958049 8.7341232 7163232
0.69652551 0.8239094 8.4476643 5785437
-2.2681863 0.7470836 9.9966297 6179673
0.94791341 0.68084002 8.213378 7229796
0.59356385 0.66633654 8.4982958 8152181
-0.41950113 0.6173206 8.8847761 5647671
0.90391308 0.64268732 8.2688198 4275788
-2.0598197 0.62996858 10.326581 6836832
1.2608697 0.61058319 7.9983115 8415868
-0.4789426 0.56806386 8.8969831 6306118
-2.2180676 0.59288555 10.476569 6509412
-2.1928499 0.58289325 10.153378 5454920
-2.8347273 0.57002527 10.656699 4930376
-1.7852976 0.51380956 9.9617758 7160914
-0.43951941 0.47687957 8.9804153 7423572
1.2430916 0.43496767 8.0283566 5653586
0.14909606 0.41833925 8.8078003 9400189
-2.6184621 0.37981471 10.565073 5259087
-2.5202031 0.40343675 10.734153 7954802
-3.0198143 0.3830432 10.991937 7431292
-1.6735582 0.36574239 9.8946018 3546402
-0.64818096 0.3632459 9.1273279 6898771
1.2025037 0.38162467 8.021637 6047576
-0.5758931 0.36065876 9.113719 5649471
-3.0487478 0.3065353 11.002942 6770280
-2.0930474 0.24107558 10.085176 3874340
-3.0814853 0.2402219 11.076827 8284288
-0.41556388 0.2476773 8.9661493 7487051
-2.6656461 0.12028822 9.8850031 5456468
-1.5876387 0.096081264 9.6171999 4333607
-0.21855135 0.11938969 8.6951065 6830144
-1.8245677 0.095518641 9.9562702 7487818
-1.8119597 0.064850397 9.9656258 3349279
-1.5667964 0.044484429 9.6227779 4203564
-0.54581136 0.061231457 9.0768509 4663088
-2.5821617 -0.022347249 10.361465 4272444
-2.2187762 -0.0096202092 10.119425 6700101
-1.8445506 0.00069433253 10.007348 4137255
0.035322722 0.0023024725 8.3762884 7553354
-1.3621924 -0.030247992 9.7778358 5058105
-1.5133286 -0.048808176 9.5824089 5912132
-0.42629901 -0.027512053 8.9787273 4663346
1.5206927 0.059970979 8.2680635 6638685
0.18329351 -0.049656123 8.455678 4400170
-1.3026582 -0.079283811 9.7909546 7487818
1.5379918 -0.009996362 7.7805462 8415870
-2.5995896 -0.12682764 10.33959 6310491
-1.4855733 -0.15835822 9.5579882 4795704
-0.3705371 -0.15279743 8.9075994 7552588
-0.4249621 -0.17266351 8.9536123 9197413
-1.5326792 -0.24223495 9.6050444 7749961
-1.5319791 -0.26874176 9.6048269 4598326
-2.1047027 -0.28955498 10.167845 7224129
-0.37187558 -0.23645464 8.9515734 8540254
-1.8475827 -0.30662 9.9224262 7026755
1.7136487 -0.19874279 7.8618827 8481148
-0.38572559 -0.27294543 8.9130373 6633021
0.92521667 -0.25810283 8.2455425 6112592
-1.5912533 -0.36253288 9.6349735 7816014
0.97026283 -0.26511565 8.2198248 5915214
-1.9896274 -0.38279146 10.127021 4793642
1.7617007 -0.25011116 8.5118456 4206651
-2.6844187 -0.52142638 10.981164 3484466
0.51999384 -0.47649822 8.5428209 6046285
-1.4029589 -0.60721385 9.5200977 6961217
-1.5163268 -0.65405095 9.6398907 4992571
0.04389425 -0.62637848 8.4794388 9724791
-2.3542845 -0.76387048 10.115593 9066859
0.39442775 -0.62408668 8.4488392 6441305
1.2830086 -0.60185552 7.9392505 8875901
1.2742777 -0.62477928 7.9537296 5323589
0.58906078 -0.71532601 8.4754133 7622486
1.3739856 -0.68206191 7.8603597 7229529
0.66481602 -0.74379015 8.4259052 6441820
0.67777359 -0.74738413 8.4122438 6179159
0.56200981 -0.77080232 8.47474 8482434
-2.2472386 -0.92195654 9.8805199 8606821
0.94089264 -0.81451893 8.1971188 3826374
0.65560663 -0.84529477 8.4356441 8874358
-2.4700701 -1.0284671 9.9965801 2892583
-1.0857871 -0.94239575 9.0624981 7426151
-0.89516592 -0.94412565 8.8920984 5125443
-0.73438364 -1.1070367 10.123921 6635341
0.91437483 -1.0362124 8.2313261 6703957
0.73377007 -1.0640563 8.3522701 5128531
0.83574843 -1.1193014 8.2956944 7959436
0.7214821 -1.244758 8.3660488 4862780
0.82102543 -1.3205026 8.2835827 6508393
-1.7364798 -1.5527401 9.576045 5780030
0.75035274 -1.4769608 8.3351641 8020082
0.74486905 -1.4961205 8.3413 4206138
-1.0930202 -1.4555076 7.896924 8540261
-1.5224026 -1.4444064 7.7878757 6698562
0.8580569 -1.560128 8.2709789 5586764
1.5885944 -1.4869397 7.7085133 4864842
1.5452378 -1.5011704 7.7541194 7235459
0.91399729 -1.6537819 8.7073917 4732229
-1.1695565 -1.4949507 7.7064624 9461363
-2.1344531 -1.7005823 8.6576586 7028560
-2.4650953 -1.6791604 8.4666138 6440024
-1.0418458 -1.6977648 8.0334415 7491175
-2.7294209 -1.9743657 8.5715208 6374221
-0.57884645 1.7614393 9.0867977 8216950
0.93991077 1.8010532 8.2186413 8021884
-0.080548093 1.8058316 9.0161009 7229014
0.38177168 1.8125076 8.707159 6244954
0.047516014 1.7931219 8.8995447 9270921
0.63589513 1.792757 8.5003986 6311008
0.96735746 1.787429 8.2459078 4272967
0.087944493 1.7711303 8.8615103 9270662
0.3547647 1.7745154 8.6835079 5917019
-0.43320429 1.6515675 8.8119078 6638947
0.25488022 1.7619535 8.7416277 7756138
-1.3202469 1.6033281 9.3691854 5844533
-0.036741346 1.7497516 8.9791632 8018025
0.21253987 1.7416362 8.7874985 7426399
0.35655379 1.7397012 8.6827278 6640491
0.40358639 1.7325815 8.6273146 6835292
-0.71136504 1.5755664 8.8563128 8413813
0.08356256 1.7277672 8.8670044 8481145
0.14944206 1.7387846 8.852622 6835034
0.49429634 1.7304623 8.571619 7891070
-1.3050253 1.5637611 9.2926207 9198962
-1.4795642 1.5533677 9.4300661 3676444
-0.62868214 1.5702965 8.8788404 8876166
-0.3020153 1.5374966 8.5969467 5916252
-1.2884132 1.5453739 9.2859411 8803688
-0.041518047 1.7060875 8.9844408 7689318
0.0054388507 1.7062846 8.9415102 6902895
0.15707079 1.7124579 8.845602 8811917
0.18933713 1.7075322 8.8131542 5982817
0.20848355 1.6982653 8.7932024 6967136
-1.3505408 1.5418309 9.3813257 5451839
-0.99973279 1.5302931 9.0727825 3479326
-0.10295671 1.6920102 9.0379457 7033193
-1.39015 1.5448577 9.4668617 7093061
-1.1182158 1.5400841 9.2437601 3940394
-0.075064301 1.6836916 9.0139027 8613252
-0.30201542 1.5374964 8.5969467 5916252
0.98992825 1.6833256 8.210886 8810371
-1.1704563 1.5219232 9.2324028 5910333
-1.5802244 1.4978731 9.498024 5187115
-0.76532769 1.5069636 8.8932724 4662313
-0.65553403 1.5233397 8.8974266 8873081
-0.019306295 1.6625614 8.9653149 8482180
-1.4055569 1.5018163 9.4028187 6304323
0.13277897 1.6445892 8.8207827 8877192
0.17931825 1.6554521 8.8251915 8877450
-0.4831031 1.5334194 8.8522367 5982295
-0.26851007 1.5560288 8.9005184 7952751
-0.018001493 1.6230404 8.9642487 6966881
0.11505415 1.605494 8.8389931 8876421
-0.042734213 1.586085 8.9396172 8810886
-0.84221154 1.4403472 8.9426956 3677473
0.017328752 1.5927655 8.9331541 7098982
0.95148915 1.5924134 8.2122221 6638942
-1.9401159 1.4462379 9.8848915 7101295
-0.99496442 1.4161744 8.9971561 3874595
-1.8438219 1.4172962 9.7001867 4596781
-0.74013108 1.4351435 8.915226 5123123
-0.021659033 1.5662833 8.9696407 6441565
-1.8782328 1.3878595 9.6746302 7950946
-1.351841 1.3909323 9.2778349 3809576
-1.1300626 1.3914379 9.1057949 5255483
0.19658798 1.5589092 8.8100758 7099496
1.0909104 1.579035 8.1824932 5523290
1.1692538 1.5469105 8.0185881 8022402
1.2142226 1.5528229 8.0042067 4076616
-1.4110065 1.3871752 9.3356075 3678247
0.49367911 1.5439991 8.5817261 8021113
0.9454999 1.5505584 8.2268353 4995920
1.0020823 1.5516912 8.1991034 3418681
-1.4747722 1.3749979 9.3594379 3414817
-1.3827833 1.3709209 9.2905798 4861237
1.2291306 1.5311642 7.9703903 7626871
-1.8790338 1.3560798 9.6420774 2889499
-1.8361578 1.3702259 9.6652384 6830913
-0.17197508 1.5265385 9.05054 8281203
0.94725734 1.5289918 8.2264166 8285318
0.95943439 1.5306594 8.2025309 4996180
-1.727108 1.3546609 9.5331936 3545887
-0.8095715 1.3803048 8.943574 4729652
0.080471553 1.5185016 8.8755322 7362152
-0.032808434 1.5135363 8.9808731 5653075
0.21749929 1.5146705 8.7893553 5850712
-1.7572186 1.3285167 9.5483217 5122863
-0.20253311 1.371076 8.5630808 6967392
1.220319 1.5037322 7.9941998 5194074
-0.78636491 1.3743023 9.022912 2561306
-0.20253311 1.371076 8.5630808 6967392
0.17812152 1.486921 8.7784624 8287115
0.23011963 1.5010388 8.775526 6705249
-0.34642935 1.3714123 8.7467327 6047578
-0.061650109 1.3387519 8.3889408 6311780
-0.11512873 1.4854023 9.051755 8350849
0.1617201 1.4847956 8.8475151 8220294
0.60163593 1.4777904 8.5000401 7561334
0.94080538 1.4777173 8.2403669 6573149
-0.13340911 1.4532133 9.0203524 5916505
-0.12943421 1.3930266 8.6981325 6573407
0.83288747 1.4395995 8.2851124 5784148
1.255316 1.4525402 8.0109873 6115174
0.25234705 1.4349873 8.7543888 7428462
-0.77497715 1.3075308 9.0941277 3742754
0.37878677 1.4112393 8.6681471 6507354
0.42009273 1.4051039 8.6194239 6969198
0.077747613 1.3899025 8.8296938 6440530
0.31472799 1.3980799 8.6860504 6112854
-2.1104763 1.2661222 10.004118 6572889
-0.39772627 1.1427842 8.1610975 6244184
-0.6190595 1.2840613 8.9941196 5320508
0.077705272 1.3976151 8.973032 6045774
0.21812436 1.3742714 8.793026 9072771
0.26766622 1.3732271 8.7396479 8350850
-0.29004624 1.3689283 9.1921129 6046799
-2.1092789 1.1958619 9.8406248 5981011
-0.77271533 1.253015 9.0934963 4071723
-0.10111589 1.3486433 8.9947834 7493484
0.63485944 1.3573198 8.4603806 6901091
-0.32272816 1.3408346 9.1707907 4205619
-2.3200898 1.1438507 9.8283978 5586507
-1.1973432 1.2153918 9.3166132 5911875
-1.0463419 1.2189139 9.2078943 6569550
-0.47898769 1.290135 9.0622072 4203047
-0.28582329 1.333656 9.1432581 6111823
-0.22032043 1.3319116 9.0930986 6375515
0.093237221 1.3533921 8.9596815 8020858
-1.3539921 1.1968186 9.3676691 6371915
-1.3811177 1.2003633 9.4627333 5845567
1.2700467 1.3280221 7.9903131 5259603
0.99805123 1.3264948 8.224206 4930642
1.0872937 1.3209718 8.1310539 6114656
-1.6278758 1.1805133 9.6466894 6043720
-1.6780308 1.1651838 9.6602411 4136741
-1.54387 1.1469097 9.5193129 7097185
0.24053952 1.2901292 8.7710848 8679554
0.2595526 1.2809821 8.750844 6574951
-1.6655178 1.1290379 9.5888767 7095378
0.30936211 1.2668089 8.6967497 7231339
0.22936513 1.2638631 8.7838335 6967906
0.298601 1.2407124 8.709754 8811656
-0.80662984 1.1210757 9.0750475 7684428
0.34146923 1.2219943 8.6615763 6770784
-1.6848619 1.0890433 9.6616516 7487820
0.12466757 1.2279177 8.9302187 5983074
-0.34649637 1.1984775 9.190176 7822190
0.25066954 1.2106335 8.7627287 7167087
0.32856002 1.2100194 8.7320728 6835805
0.48826072 1.197288 8.6013851 8811140
-1.7157359 1.0574892 9.7033873 5778740
-1.6667483 1.0454162 9.6571207 7422028
-0.26984257 1.0835979 8.6830206 6834778
-0.19291744 1.0924351 8.7052879 7889010
0.16791287 1.1668134 8.797617 6112853
0.20616263 1.1577519 8.7580662 8614275
0.84380758 1.1642092 8.2849922 8482181
-1.7134072 1.0173292 9.5997572 4135970
-1.0638757 1.027403 9.1086798 3744557
-0.83481121 1.0317793 8.9772835 5582394
-0.28565297 1.1237872 9.0555687 8280168
-0.36865458 1.0640868 8.7670813 9195611
0.83497053 1.1564612 8.300251 8810372
-2.5065756 0.89881146 9.6594086 8612215
0.13071853 1.1403817 8.8359537 9336716
0.19010594 1.1535473 8.8275051 8942471
0.48421401 1.1433059 8.5493288 8942984
-0.95274091 1.001291 9.0075064 9329516
-0.72084063 1.0451819 9.061965 3283232
-0.57402307 1.0411932 8.9645853 8805229
-1.8343496 1.0738516 10.182095 4272704
-1.7203736 0.99230587 9.6311502 7618121
-0.34282765 1.0384727 8.7895298 7355205
-0.22184631 1.0371898 8.7354984 9532294
0.43966049 1.1229931 8.6053753 7557986
-1.5334226 0.97431803 9.4364567 4137000
-0.74271768 1.0224997 9.0753517 7356239
-0.41720361 1.0048517 8.7653236 7356749
0.37088615 1.1068947 8.6313744 9269632
0.53171879 1.1158453 8.5492058 9138818
-2.4960916 0.85274559 9.6300755 5061970
-1.7263436 0.96479249 9.6383133 4858666
-1.6436681 0.96729541 9.5347347 8934499
-1.5956061 0.96885657 9.4910202 4990512
-1.5332692 0.95302516 9.4347277 8408925
-1.0444282 0.96387643 9.0710249 5254455
-1.6786044 0.95548898 9.5903988 4727855
-0.94537145 0.97384918 9.1172943 6110283
-0.43806928 0.99124593 8.780612 9065829
0.16520868 1.0828512 8.8021717 8942215
0.52200323 1.0898194 8.5629921 5390411
0.58816141 1.082209 8.4758778 8481659
-1.9122788 0.97224057 9.9462996 4928319
-1.7501087 0.9650777 9.8143435 2627099
-1.73261 0.94883305 9.6730766 2495511
-1.7069257 0.94795913 9.6670828 6961731
-1.6348027 0.94357938 9.532218 4925234
-0.96462226 0.94100338 9.0172071 4267813
0.55014348 1.0796697 8.5266256 7955056
0.95991945 1.0705336 8.1613941 4207169
-1.5316498 0.93639857 9.4621649 5056563
-0.1423357 0.95681596 8.5387115 7427946
1.0709518 1.0705647 8.1040964 4536904
-0.42667291 0.9732843 8.8141127 5253170
-0.39881635 0.97017825 8.7925577 6765892
1.1413014 1.0766243 8.1266012 8088192
-1.7845061 0.9392311 9.8210945 7619664
-1.716931 0.91598171 9.6356544 4399397
-1.6626847 0.92292345 9.5810881 6240840
-1.6247851 0.92108059 9.5330486 7160658
-0.1423357 0.95681596 8.5387115 7427946
1.0552578 1.0597014 8.1359386 8743288
-1.5549982 0.91220671 9.5217581 4267297
-1.5494993 0.90493101 9.4372158 7028813
-1.1666428 0.94517118 9.3636408 4268069
-1.0038306 0.91768736 9.0883741 3348765
-0.37774888 0.95401889 8.7757797 3809573
0.49671111 1.0559638 8.6565151 7229280
0.51313651 1.045977 8.5763216 4470080
-2.1387854 0.90215868 10.040382 5849421
-2.0078669 0.90585208 9.9261961 6301996
-1.6873755 0.90311849 9.5875483 4662572
-1.2280371 0.93920439 9.4209175 4203049
-0.76245648 0.94478017 9.0879173 3873054
-0.21380813 0.96011239 8.725565 8743549
0.096462451 1.0293906 8.8719187 8612989
0.57429951 1.0343813 8.4964218 6376287
-2.0338132 0.89357746 9.9294729 8670552
-1.7206317 0.89052886 9.5960121 6437701
-0.61228633 0.9477883 9.0321302 6041913
1.0923835 1.0363348 8.1467533 7493994
-1.6322637 0.88696676 9.5352345 5778226
0.15633835 1.0077353 8.8138266 6770015
0.18877907 1.0034786 8.7813034 8616079
-1.6782255 0.87952685 9.585865 6502209
-0.88927847 0.89235932 9.0481873 4990253
0.14252242 1.0148332 8.9214125 7232110
-1.5826288 0.86676413 9.5175161 8475493
-2.0336161 0.86427009 9.9289055 4200732
-1.6398275 0.86276472 9.6151943 8343906
-0.10264783 0.9513585 8.8601847 8941958
1.0365231 0.98905241 8.0984306 8745605
-1.5641121 0.85620534 9.5416231 5450291
-1.6310755 0.84702301 9.6126776 5385526
-1.2034626 0.87508929 9.4285307 7754342
-1.0558677 0.87867814 9.3249607 5253939
-0.99764848 0.84968799 9.0654583 7488336
-1.5521294 0.82353842 9.4733791 6238524
-1.5521294 0.82353842 9.4733791 6238524
1.1562154 0.95998389 8.1066265 8481148
-1.9442027 0.8229419 9.9512854 7816271
-1.6752577 0.80988574 9.5888948 8210775
-1.1803021 0.82790869 9.3455305 8409186
0.047301538 0.93524235 8.9203634 8019051
-1.0018942 0.80048263 9.0457773 9526636
-0.77393061 0.8419255 9.0953655 7487308
-1.4200112 0.80316454 9.5472813 4399915
-0.57260704 0.84820896 9.1311445 5845048
-1.6820977 0.76043606 9.5923843 8999777
-1.528828 0.78294188 9.5821791 8934244
-0.76480854 0.80419326 9.0903664 9263208
0.99154162 0.90262979 8.1917601 7295584
-1.061655 0.79703939 9.3274107 4793903
1.1321955 0.89416009 8.0770626 8020595
-1.3259213 0.77977091 9.4717722 4728625
-0.35632092 0.80596256 8.8469133 4464677
0.097351342 0.8693015 8.8751106 7822446
1.1249206 0.88642538 8.0931759 6310232
-1.5257151 0.73531312 9.5120325 8605793
-1.1066433 0.75933343 9.2888441 4991798
-0.99692947 0.77244163 9.2960653 4400172
0.15535517 0.84067065 8.767086 7492456
-1.3750063 0.74909109 9.4889803 5122611
-1.2952389 0.75051153 9.4507971 4728881
1.1415428 0.86189371 8.0595913 8415100
-0.77150649 0.7513873 9.0549603 5449775
1.18141 0.85473734 8.0620642 6442079
-1.4886392 0.71883065 9.5345697 8474203
-1.3698314 0.7570892 9.5732746 5320249
-1.3615273 0.72609556 9.4729347 5123385
-1.0105137 0.70229745 9.0799732 4136226
1.0680261 0.84288877 8.1293106 5521489
1.0882199 0.84036535 8.0887318 6112855
-0.51910841 0.75409985 9.0539856 5976376
-0.49316555 0.75541162 9.0455275 6239549
0.68748003 0.83004737 8.5307989 6246499
-1.5324473 0.67989415 9.5143337 5121322
-1.4880204 0.6935187 9.5342913 4924201
0.68868703 0.81639135 8.4753532 7957635
-1.7036003 0.66691673 9.5753794 4924457
-1.2536217 0.69461572 9.3862848 5319991
-1.1332287 0.70605779 9.3983488 5712948
-1.0105147 0.70700473 9.3032999 7291725
-1.9056033 0.69222045 10.011156 6505042
-1.0504164 0.6995014 9.3224707 5189177
-0.98647386 0.70032793 9.2912722 4532273
-1.0342182 0.69224387 9.3146296 4532272
0.089223251 0.78197026 8.9360008 7032674
0.25903925 0.77968901 8.7667742 5916504
0.27156934 0.77973026 8.7533665 5588052
-1.3538755 0.66959119 9.5597029 4532532
-1.3598022 0.66139185 9.4495964 5254713
-0.47376624 0.69302183 8.9783297 5846078
0.21407361 0.76463449 8.8586864 8219521
1.1274617 0.77578884 8.0978622 7493486
-1.8994493 0.65195894 9.9665775 5452611
-1.5120927 0.64454973 9.5416517 3347735
-0.47285473 0.69567877 9.0220528 4924716
0.55604738 0.75572979 8.5330448 8220548
-1.726748 0.65783215 9.9496565 6172984
-1.2338803 0.61117017 9.4044895 4465192
-1.1524594 0.61388004 9.3697491 4136228
-1.1790216 0.59898806 9.4183445 3741722
-0.44142562 0.63631511 9.0000372 7488850
-2.8226929 0.42568576 9.7019033 4733255
-1.1380732 0.59386182 9.400527 7093830
-1.119449 0.59091729 9.3548927 3610906
-1.0712608 0.5948261 9.3325195 4070949
-1.4191487 0.57702446 9.531599 4596524
-1.2807491 0.58160043 9.4962854 4333607
-1.231154 0.58603793 9.4766769 3545370
-1.2115541 0.58333421 9.4317837 7356746
-2.78776 0.56807983 10.849887 4339269
-2.1338274 0.55040085 10.04298 6968938
-1.4099451 0.56375837 9.505805 4728111
-2.1935825 0.57638675 10.458725 8481405
-1.0640848 0.56969792 9.3671923 6962757
-1.6903063 0.56907475 9.9395351 4465710
-1.263482 0.5573256 9.4895391 7290182
-0.45158592 0.58583003 8.9881239 7621981
1.204193 0.66180778 8.0311127 7691119
-2.6866684 0.54521942 10.801194 8022917
-1.0539391 0.55320883 9.3243265 3545112
-1.2961543 0.5371955 9.5021772 3413526
-1.0054462 0.5439862 9.3010101 4136741
-1.8739536 0.51433378 10.010143 5582393
-1.3455706 0.51554996 9.5206203 4792875
1.0164109 0.62157261 8.1673861 5652301
-1.0205754 0.51698214 9.3085089 6896450
0.23609056 0.60009402 8.7963333 8416382
-0.55532384 0.53449166 9.0805521 7948633
-0.1594872 0.55681545 8.8217573 7755367
0.23361142 0.58525914 8.7456274 5062479
0.93330771 0.60568994 8.2422514 7955063
1.1761961 0.60240239 8.0103645 7758965
-1.0041012 0.50096983 9.3004131 3676440
1.1534287 0.60022509 8.0595703 8086392
-2.6545942 0.47962734 10.772174 6047835
-1.844191 0.48019406 9.9350147 5713465
-0.20574215 0.54142416 8.8149767 8150643
0.036605634 0.56228811 8.888525 7294814
0.27541545 0.57360119 8.7556849 5981782
-1.352765 0.47192901 9.5231905 4333088
-0.13901126 0.536219 8.8511896 7033186
-0.40215462 0.48823741 8.8626556 4726820
0.39236188 0.55639523 8.6253071 8087937
-0.57549912 0.49196017 9.1329412 4793647
-0.56257784 0.49162534 9.0823545 6831689
-1.0012845 0.45405066 9.2610807 6699584
-0.97793323 0.46006766 9.2489433 3282202
-1.3728168 0.43951634 9.5664625 3873313
-2.6383274 0.43274528 10.811554 5325394
-0.51666331 0.46933028 9.0562067 5583165
0.13867491 0.50658721 8.7922754 9271180
1.157213 0.53776616 8.057621 8480119
-2.2400656 0.43110105 10.530675 5324363
-2.4921663 0.40785578 10.654962 5784659
-1.6053277 0.43123806 9.8974075 3873827
-2.7006495 0.38853392 10.763758 6046546
-2.1251185 0.42029795 10.459318 5125952
-0.42142662 0.43914431 8.9317198 4399399
0.3490209 0.48801053 8.6216965 6178651
-0.96019626 0.40530419 9.2401752 4333860
-2.3841839 0.38852593 10.594347 8415352
-1.2112613 0.39036763 9.3949289 6702420
-0.69715804 0.40921068 9.0905046 8605018
-0.93605685 0.38971806 9.2275925 8276051
0.19463664 0.46343935 8.7891741 7624811
-2.541187 0.36033213 10.684419 6966103
-0.48290971 0.40884694 9.0883131 4597554
-1.4372473 0.34939522 9.5170145 8078931
-1.1529648 0.36036721 9.370244 8020310
-0.39944348 0.40212762 9.0157757 4728109
-1.1796329 0.34877282 9.419096 4202272
0.99094349 0.44641653 8.15026 8283000
-0.51301581 0.3728371 9.0869274 6637404
-1.0273218 0.32390749 9.2368269 6175299
0.94774514 0.43064159 8.2292538 6177098
-2.0484364 0.30511135 10.101181 4137255
-1.3815944 0.30147365 9.533534 6634308
-1.2084533 0.30444404 9.3941803 4531493
-1.1271161 0.31054473 9.3587465 3808285
-2.7723148 0.2791678 10.820009 8021631
0.3952356 0.39325058 8.734045 6966878
1.0161146 0.40286759 8.1849041 7628412
-2.0118206 0.26783231 10.062357 6370363
-1.8917154 0.29480112 10.066409 6698299
-1.2310447 0.29624611 9.4769239 7955280
-1.2324891 0.28538889 9.4042091 9404010
0.019510154 0.3247816 8.5508165 7689575
1.1145022 0.39527014 8.0748539 8087164
-1.1449164 0.2778278 9.4039555 9468773
0.21666557 0.34701586 8.7169209 9796238
-1.2968473 0.26509255 9.5025539 3414814
-2.3933511 0.24744397 10.630572 6375510
-2.282553 0.22627823 10.179902 8545396
-1.1196128 0.25791213 9.3930273 2954774
-2.3979914 0.20840436 10.199688 7032155
-0.69946259 0.26584697 9.0929756 5255480
-2.2749801 0.234299 10.529978 8348786
-2.4263804 0.17397189 10.212611 5653330
-2.2554078 0.20788974 10.179243 5784660
-2.1272247 0.19527274 10.072282 4992569
-1.4973525 0.21443547 9.5720072 5386295
-0.38747558 0.26405588 8.9715853 6369079
-0.36884409 0.26778412 8.9506207 6172212
-0.21059988 0.27358386 8.8174839 6633536
0.27806461 0.31210268 8.7061434 8019570
-2.6661432 0.21117842 10.910381 5127757
-2.2105227 0.19786187 10.212743 5588056
-1.2059886 0.21841285 9.3931227 5519403
-0.92174125 0.22328815 9.1823912 4332832
-2.8164167 0.18134144 10.881969 5258579
-0.70581442 0.23068631 9.0970984 6895165
-0.65951592 0.24081212 9.1086578 4727336
-2.5823889 0.18742374 10.750999 3287351
-1.6184089 0.18398115 9.6773453 4135966
-0.82067764 0.20638865 9.0482101 4663084
-0.41445926 0.23598087 8.9414997 8737118
-0.15968826 0.24067925 8.6978483 4530986
-2.6170657 0.16684978 10.709493 7824506
-1.1725785 0.19490878 9.3788528 11378053
-0.92986959 0.20411038 9.2250166 6435382
0.84806365 0.28308359 8.262538 6703963
-2.5819507 0.15594016 10.751414 4866135
-1.4958388 0.158572 9.5715885 4532272
-0.44808868 0.20762131 8.9700489 8080218
-1.8068205 0.16358495 10.021319 6698301
-1.2651389 0.15630861 9.4538937 8810594
0.58078867 0.23909336 8.4615698 6835036
-2.5440338 0.096868485 10.372231 6769750
-1.5971212 0.12783279 9.7067223 7028812
0.055574778 0.17899789 8.4677105 7353916
1.0071645 0.24998279 8.2124176 7230562
-1.2177646 0.1317886 9.4720001 6239803
-0.91920751 0.14141764 9.1810522 5318444
-1.5785617 0.099060111 9.6052246 4399399
-0.7951616 0.14448416 9.1114435 4596008
-1.6089771 0.10964347 9.6441975 7226191
-1.7768803 0.10102895 9.9593754 4202277
-1.5732772 0.096927792 9.6650209 4268325
-1.2244457 0.11100306 9.3643131 13089962
-1.1097264 0.12182866 9.4265213 5846326
-0.83339942 0.13185993 9.1726675 7424601
-0.84085059 0.12627359 9.0988598 7424601
-0.38886711 0.15481563 9.012742 3875626
-1.2755771 0.10595936 9.4946051 7688245
0.052652065 0.13967924 8.3875036 8999518
0.070310704 0.14012687 8.3683376 8209743
0.99680126 0.2173117 8.3019104 5523804
-2.5999615 0.068595879 10.748958 8087416
-1.5470665 0.084780231 9.5901508 7096923
-0.18657316 0.14214587 8.8035126 7816528
-1.1089383 0.095600255 9.4262142 9733747
-0.86369103 0.103934 9.1896553 7553354
0.93670034 0.20334433 8.4065924 4665915
1.2187967 0.19484225 7.9557333 4732740
-2.012054 0.065273762 10.150089 6106678
-1.325051 0.07632307 9.513196 7886419
-0.18603925 0.12223937 8.8025131 6106679
-1.1141645 0.07542672 9.3907824 11905424
-0.90229559 0.084203683 9.2107067 4662832
0.022231739 0.10593859 8.3722792 6564915
0.7822547 0.17310557 8.4321318 7692661
-1.1466945 0.064542063 9.4050655 9864298
-1.0893788 0.068324789 9.379674 11444875
1.0178626 0.17145689 8.2685356 8942986
-1.2879244 0.041995376 9.39044 10785406
-1.2147926 0.055716567 9.3600998 6900018
-0.18550925 0.095676519 8.8010387 7947601
0.54714149 0.13953118 8.5099945 9733014
-1.2715142 0.038888548 9.3837185 12826015
-1.2469661 0.040546998 9.373683 10785667
-2.0175052 0.023300398 10.146224 6237752
-1.3238648 0.032920204 9.5127506 9402218
-1.2383025 0.023883548 9.3700895 8875870
0.99771512 0.13101125 8.2306776 8877189
-1.0801163 0.029649556 9.3754129 12760733
-2.4603083 -0.037632823 10.294434 5777451
-2.3593128 -0.040129866 10.180463 7024692
-2.0124233 -0.0035489965 10.146539 8407638
-1.3358861 0.0040129041 9.4808893 8874845
-1.2375937 0.0022850311 9.3698988 9535343
-1.1121032 0.0099739311 9.3900614 8413772
0.080843262 0.037640985 8.3591785 8078929
-2.4038341 -0.061299402 10.179817 9001064
1.2170835 0.10084 7.9692411 7427429
-2.4660013 -0.083932288 10.178048 9132906
-1.3263917 -0.034463178 9.4774446 8481110
-1.0622251 -0.017447846 9.3674135 12695199
-0.7896027 -0.0096216258 9.1483793 6634570
-0.03487841 0.0078155957 8.386714 5779512
-2.139817 -0.068941034 10.148656 6501954
-0.52227807 0.0022367884 9.0657997 5583940
-2.7537103 -0.087280318 10.863539 7232623
-1.1654757 -0.043200757 9.3760328 4796199
-1.0594311 -0.04105236 9.328311 9469554
-0.016676856 0.022240723 8.6540127 5518146
-2.2316394 -0.090905569 10.14513 4596523
-1.1135876 -0.059100315 9.3158035 12169114
-0.82684124 -0.057180732 9.1305714 9263465
-2.5734336 -0.12095624 10.580043 4930119
-2.4581597 -0.14190674 10.211431 7487817
-2.0200841 -0.09753599 10.146644 6697788
0.80140275 0.018430037 8.4130878 7427688
1.0419457 0.027652387 8.1656418 8612473
-1.1992571 -0.091941088 9.3171902 12760992
-0.83398861 -0.074998543 9.1347113 5975606
-0.13015707 -0.046397422 8.6998539 7092544
1.2032678 0.020154664 8.008112 9007740
1.3073759 0.021578645 7.9539018 6310751
-2.6651616 -0.16675402 10.325208 8021624
-1.5251098 -0.11248192 9.6510906 5975605
-1.1666372 -0.098584138 9.3028374 6705225
-0.88843864 -0.093885437 9.2039356 4793646
-0.86486501 -0.092563532 9.1911173 8144465
-0.78710634 -0.089864448 9.107688 5056561
-0.77175421 -0.089033604 9.0986242 8210516
-1.1201086 -0.11161241 9.3188286 10127476
-0.84129113 -0.095579267 9.17803 4597552
-2.0324578 -0.15216878 10.163513 6040628
-1.5907347 -0.13715339 9.7048435 4203051
-1.1930251 -0.12466659 9.351058 8612691
-0.84866148 -0.1164609 9.2216215 5058363
-0.75505865 -0.11283819 9.1286573 5057848
-2.6162453 -0.18479483 10.747749 4601414
-2.4109979 -0.19505551 10.179656 7749962
1.3135679 -0.024015972 7.9439564 4471112
-1.1756957 -0.15834507 9.3435841 6899754
1.0596189 -0.053965446 8.1389503 5257280
-1.1973157 -0.17902683 9.4267731 6441004
-2.6346633 -0.24026571 10.744799 3811891
-1.1637148 -0.19459198 9.4127007 6967344
-1.0978307 -0.19080052 9.383976 7165762
-2.7286224 -0.25111628 10.901762 7298930
-2.6787331 -0.25519294 10.808809 3352370
-1.8098879 -0.23255613 9.9489832 7027529
-1.1222245 -0.20098349 9.3947973 7955019
-1.0585177 -0.20074388 9.4044218 3743773
1.0085207 -0.10020412 8.0820732 5719127
-2.585288 -0.24754916 11.007627 3746355
-2.45344 -0.24485368 10.656051 4469309
-0.82209927 -0.19652645 9.1284037 8406864
-0.7911917 -0.1948958 9.1105413 4793389
-2.6182592 -0.26971188 10.784291 6180192
-2.1203187 -0.25225163 10.175159 5187116
-0.44181615 -0.19182058 8.9288988 9657966
-1.1132015 -0.22684158 9.3908663 10588019
-2.748204 -0.30452421 10.830315 8023684
-1.5216976 -0.26815572 9.6006117 4795704
-0.72862005 -0.22666237 9.0733709 6372172
-0.40744901 -0.21413668 8.8977423 10052466
-2.5636296 -0.30486202 11.020367 4865102
-2.6242609 -0.32101077 10.747274 6377057
-1.895818 -0.29810429 10.050237 5187375
-0.78136903 -0.25565875 9.1050653 8802136
-1.0048856 -0.28262854 9.3411655 6572367
-0.79602182 -0.27836305 9.1137304 5123643
-0.88993049 -0.28683019 9.2054005 5056304
-2.6047554 -0.36487007 10.751013 2891559
-0.85771728 -0.29462302 9.1488667 5845311
-0.7799859 -0.29507789 9.104435 4991798
-2.8537602 -0.38646936 10.913154 3879490
-2.2991593 -0.38645786 10.34601 3479835
-1.7800903 -0.37585792 9.9444656 7026750
1.2221712 -0.23370408 7.9916577 8875906
-0.41891935 -0.32244676 8.992713 3348251
-2.2517393 -0.4117977 10.32049 6239034
-0.56950182 -0.33399752 9.0746002 5516344
0.48203191 -0.28740305 8.5489178 6374478
0.076993063 -0.31373176 8.618927 4661799
0.15879251 -0.31107038 8.5662222 6632508
-2.7433848 -0.44465974 10.79642 6573147
-1.8571981 -0.40724501 10.06457 3479837
-0.84739864 -0.36865994 9.1433678 5910583
0.99469984 -0.28129438 8.1145067 5126984
-1.3024204 -0.3968142 9.2535086 3484453
-0.38145742 -0.3500818 8.964819 3151642
0.14171444 -0.33444268 8.3503742 5848137
0.89395756 -0.28622928 8.2228785 7495280
1.3037695 -0.27559847 7.9001622 4469052
-1.2508408 -0.4029994 9.1961365 5391162
-0.98064435 -0.39728332 9.2145338 9206910
1.3143823 -0.27988473 7.8747697 4207678
-2.7371321 -0.47585541 10.834227 8153468
-2.5504601 -0.46681592 10.687987 3351854
-1.8464558 -0.43386233 9.9711266 3020312
-1.2407261 -0.41060096 9.2628183 2300959
-1.1658047 -0.40705767 9.1933718 9272955
-0.79225433 -0.38783094 9.1120367 6437188
0.78166097 -0.31868649 8.3327541 8222088
1.0783691 -0.30433932 8.1232615 5982046
1.2371812 -0.29690468 7.9646068 9337224
1.3571908 -0.2911762 7.8672462 8680326
-1.2343088 -0.4235864 9.1887417 3812392
-1.128121 -0.41359809 9.2121162 11313560
-1.0343964 -0.41317907 9.2038326 7034187
-0.81526124 -0.3975558 9.1648045 5517113
1.3091049 -0.30704868 7.8906436 8087423
-2.8339334 -0.49384063 10.919613 7495786
-2.6731501 -0.49090663 10.775429 6838375
-2.5216544 -0.48341101 10.692266 7886689
-0.10489996 -0.37167647 8.7432699 8671329
1.2308046 -0.31540182 7.9806805 6901340
-1.2417814 -0.44103786 9.1920414 9734527
-0.77574152 -0.41784477 9.1024895 6963797
0.47966489 -0.35623279 8.5544052 6441046
1.403854 -0.31177282 7.8506975 7626095
-1.132884 -0.44420987 9.1778803 7364452
-1.0416602 -0.43523604 9.2074976 11971997
1.289427 -0.3308264 7.9404216 9140104
-1.2732093 -0.4596521 9.2057877 5190693
-2.7687955 -0.53176063 10.863674 3747897
-2.5402429 -0.52542001 10.689838 4206655
-2.320281 -0.514678 10.283279 6042174
-1.9819943 -0.50222236 10.151928 5974321
-1.2923361 -0.46913651 9.2491426 8351574
-1.1881783 -0.45973197 9.2036352 3416866
-0.82902861 -0.44679901 9.0941858 9789292
1.1421314 -0.35177642 8.0844307 9468040
1.2175579 -0.34813094 8.012989 7559531
1.3397367 -0.33779952 7.9167023 9008263
-1.3728415 -0.48180473 9.4225359 7892853
-1.1639005 -0.47153944 9.1924257 6442051
-1.0627829 -0.46674243 9.1806698 6705491
-0.97738242 -0.45827389 9.1750917 11774370
-0.10298572 -0.41258246 8.7547302 7291729
-1.368628 -0.49058306 9.5288963 6706528
-0.82074749 -0.46402279 9.1287003 6434099
-1.1954018 -0.48587713 9.2069044 4799300
-0.77378798 -0.47502676 9.1015406 4859182
-1.1472189 -0.49658272 9.1846361 4139562
-1.1017203 -0.49460608 9.1995907 7957114
-0.99224436 -0.48960012 9.1827335 4007722
-0.96852314 -0.48847497 9.1705112 8546920
-0.89072204 -0.48051 9.1676569 4661804
-0.72742909 -0.4771716 9.0739479 4531501
1.0961075 -0.39061591 8.0962343 8612732
-2.0600238 -0.5420385 10.171988 4465450
-1.372215 -0.52187765 9.5665007 3349540
-1.3182143 -0.51381278 9.3661041 6313034
1.1214159 -0.39838082 8.0469933 8810369
-1.7481306 -0.55175126 10.00364 4924974
-1.3557558 -0.52088481 9.3426247 3746088
1.4721675 -0.39048028 7.7799273 7690602
-0.85082674 -0.50977498 9.1850119 4926517
-0.81146336 -0.50761455 9.1235867 8604759
0.82103735 -0.43219337 8.4091425 6114145
-2.6402969 -0.60277927 10.746334 4798278
-1.4318111 -0.54675007 9.5045233 8407637
-1.0070971 -0.52080208 9.1904078 3875879
-0.90598369 -0.52119935 9.2147236 8670810
-0.96832126 -0.53254831 9.2085934 6830400
1.3619373 -0.42327389 7.8712859 5193808
-2.5103495 -0.62421322 10.694781 6573146
-0.9280476 -0.54827398 9.1877327 5251879
-2.4090164 -0.63495165 10.331086 9000293
-0.46977508 -0.53304899 8.9772682 5713466
-1.7070891 -0.60619837 9.9469748 4268584
-0.52597147 -0.54843682 9.0519829 6636629
-0.49135819 -0.5561921 9.0471373 5714495
-2.7412534 -0.6756165 10.798675 5325394
-2.7127347 -0.67467088 10.804897 6509670
-0.38906896 -0.55863506 8.9538336 7290702
1.0871898 -0.49096259 8.0409603 7230562
-0.8166194 -0.58791119 9.1663761 4530986
-0.80874443 -0.58688247 9.1223726 8802137
-0.76993161 -0.58510274 9.0998621 4530730
0.017621456 -0.54469573 8.4785252 7290954
-0.97365212 -0.61639255 9.211422 4926261
-0.40691489 -0.58670104 8.9730387 6765644
-0.18615857 -0.57417303 8.8069782 6371141
1.159916 -0.5101679 7.9778423 6638165
-0.79216307 -0.61342651 9.1526661 5057847
-0.70741481 -0.60875928 9.0624638 6502472
-2.4660091 -0.70632869 10.312151 4599094
-2.4567664 -0.7488609 10.356586 4730422
-1.4398017 -0.69410223 9.4720812 6237749
-2.6797712 -0.77784234 10.776252 4930118
-2.5754771 -0.78199691 10.685929 4733771
-0.6746397 -0.66928166 9.0425186 9788781
0.81662142 -0.60428858 8.2269592 8547713
1.1718863 -0.58228326 7.9590244 6966872
1.1122617 -0.59651268 8.0817518 8941694
-0.6751467 -0.68586588 9.00245 9920882
0.87491912 -0.61997497 8.3854256 8219262
-2.6160946 -0.80647629 10.715758 5983062
1.18954 -0.61070329 8.0102644 6309711
0.93659097 -0.63156998 8.173418 8086129
-2.6034636 -0.81850135 10.682041 3615538
1.1590604 -0.64119053 8.0754852 4995397
-2.5711825 -0.82626426 10.271213 5651274
1.2477474 -0.66339415 7.9778061 8416897
-2.5863218 -0.85134578 10.237 9658739
-2.3271 -0.8414768 10.113622 10183538
0.79713368 -0.70275712 8.3979292 7232109
0.94932574 -0.69490385 8.1556902 7494507
0.67977422 -0.71794188 8.3700266 6309458
-2.3597872 -0.86552185 10.047746 5846587
-2.2724621 -0.88000709 10.112621 4863291
-2.633276 -0.90115988 10.265636 4994364
-1.8032502 -0.86868721 9.6298399 4598581
-1.5852249 -0.85888273 9.4290905 5911357
1.1930828 -0.73968875 8.014411 6638421
-1.758616 -0.88586581 9.6516418 9922426
-0.041788239 -0.78844738 8.455781 5651263
-2.7157643 -0.92438567 10.192637 4733769
-2.627116 -0.95844126 10.20102 3613737
-2.6015816 -0.9533518 10.106295 3942188
-2.5155911 -0.95818931 10.056505 7753817
-0.30635267 -0.83229405 8.4782696 9198702
-0.76092523 -0.86738998 8.7554283 5913159
-2.6682899 -0.98266268 10.165189 3615023
-2.5241075 -0.97336543 10.014238 3153955
0.12310636 -0.83391267 8.1839752 3613483
-2.3276408 -0.97685617 9.9490461 8409440
-0.5512464 -0.87572986 8.6006508 6569030
-2.4625607 -0.99449682 10.015138 7358544
-2.1071362 -0.98064947 9.7310371 5319991
-1.0417964 -0.9603951 9.7281933 5912902
-0.4514502 -0.87603182 8.5495872 6371654
-0.01773357 -0.85829371 8.2913313 5582907
-2.2647762 -0.99655241 9.8764162 5652037
-0.6377244 -0.89327562 8.6215172 5059901
-2.4005823 -1.0068564 10.015426 5586503
-0.32088834 -0.89399356 8.5775595 5912131
-0.18318424 -0.88784248 8.410491 4796983
-0.69651139 -0.91911018 8.7201939 6046546
-0.47750363 -0.90622109 8.6208582 9001061
1.3240982 -0.844118 7.9151402 8612217
-2.5565908 -1.0347028 10.108765 7621719
1.0708383 -0.87048858 8.102376 5521225
-2.3546026 -1.0350137 9.9820871 8211031
-1.3776093 -0.98025072 9.2531815 9199473
-2.6410656 -1.0556836 10.167542 6767175
-0.47648907 -0.93642324 8.620059 4535611
-0.063665524 -0.91328889 8.3396864 4665914
